x,y,z,Marker (categorical),Marker (continuous)
466.3038908215499,362.50587684001977,846.1644393108669,3,0.18060857233364216
188.0432655904759,122.62681043483781,494.73781620361854,3,0.95510433566784
610.4080522283803,113.09723755005562,294.70082538496746,3,0.9679808194878492
455.33727826470107,189.7426938100808,512.6310471768146,2,-0.643634584115872
943.5059509105961,439.5905315638273,530.1791814894133,3,0.9557030622410859
156.78840257878423,498.25240383053404,574.4955912722717,3,-0.15074094543810507
60.50871537136759,326.009209779336,522.0314388960446,3,0.9981807420876134
224.06503286357716,250.92806553700476,469.3491764004882,3,0.1660926907676223
713.2030883204374,670.7699689943066,750.3978275684245,3,0.1311258220661748
625.090333645437,805.8196030549809,391.38474276576795,3,-0.19964189190832146
697.9838079997324,311.5954392722272,898.4676327620228,3,0.9787781077431675
533.6136754589538,314.0058827209503,116.12865896048041,3,0.8243288640107401
285.24237567520714,205.58766366594105,421.25489728545153,3,0.1638481335516285
660.9610516303024,307.12153241250564,464.2274012613174,2,-0.9999896711437313
557.4550808466228,213.86412265352882,663.3111265216297,3,-0.3861298884781456
114.82653192663894,602.8230685385173,707.7879238181696,3,0.959678868163749
625.6493735323809,650.2498988655308,911.914229395359,3,0.9821402008450993
202.81543712646388,239.276980155281,285.90395183427006,3,0.9597942237330316
379.18014828618664,162.02519670805015,425.1456865894284,3,0.07416525249780846
734.8676558073006,556.9881832713226,221.17924237400265,3,0.1082633724083746
606.6769498459033,250.83673328662903,685.7724594820612,3,-0.46333710892920665
928.8342435493649,463.668437640892,488.49853393656406,3,0.8455846711718057
393.767003908547,770.5245619398619,344.8128007504847,3,-0.4519190005857623
521.0573027525331,610.7479315689271,642.0164438738717,3,-0.4863221057050722
484.2830447161003,421.74248927017754,790.1852240744392,2,-0.7742291916704835
82.33731072180628,359.75487339771064,587.936850915623,3,0.958466878679673
714.866670926577,776.7926827662819,728.2583236463564,3,0.736205766492826
758.5249408916739,786.873225731234,603.7169276556754,3,0.5308498274608298
945.8339438019525,484.8136067741858,551.1402087097617,3,0.9573938171244516
733.3677249205291,661.9623334504028,400.5589177136492,2,-0.7741969815989855
186.25628374172976,510.99752213594473,166.44643171678354,3,0.9870898468464033
423.68488206718956,229.18900028879864,358.69781240675945,2,-0.630825122311274
332.3410391864221,550.2024934726758,111.35867331015015,3,0.8104445497938215
343.99499209610576,807.8858001655957,596.5351130658005,3,-0.04621313600725908
342.62388412002855,441.77054800911606,275.68667305656834,2,-0.9283200877305607
440.51855166311606,752.7469851332651,672.2995152589858,2,-0.6667166800363531
531.2569329618074,754.3575180522005,885.5850717881934,3,0.9960519832141136
148.47391906511132,148.2304851771813,484.62577701306697,3,0.9146554175198847
514.3341380504501,434.10492957694345,257.8593323338161,2,-0.9992174686479459
573.7540672990967,859.8490196082454,566.4762653068852,3,0.1706025325046925
505.52765880733983,486.40904111320003,937.726640218452,3,0.8985674713424106
442.22253352062455,511.41407112672397,328.42499245655046,3,-0.48735365286626986
383.75116712342526,512.2496905993778,851.6125238721158,3,0.13069972966580734
811.7282093710011,302.7534983254706,306.6613455316475,3,0.7191171481539099
658.6906620495062,497.2138193577568,761.969409432364,2,-0.7225895144676393
516.2239655185775,113.78764751502557,488.2699582521631,3,0.3595162438637717
236.38884774882916,329.05887476700514,269.1249156540931,3,0.40220623781856335
434.3161332216374,360.4516084373893,882.2839614118446,3,0.6744838369652472
808.5721020128746,508.59129221058373,367.4289029735676,3,-0.36552200225796333
372.05918767289245,269.14751711808213,536.7514485890796,2,-0.9835822778851925
360.7840791117963,158.1304900094066,236.15603181503465,3,0.9749999880648692
710.2600277575923,399.9843929416923,890.7141058934833,3,0.978448856159175
631.98015192703,287.7775743464845,286.65533282358723,3,-0.46334984420119496
904.133692431437,340.53439295967394,341.1781726129477,3,0.9955121233972537
919.4850148034865,513.5794206430427,351.73947627651813,3,0.939428164391327
795.5319791557754,161.37200459706403,386.99901501147525,3,0.9966268728665509
241.67738374284355,602.7261967320445,413.2331890070883,2,-0.8561619271875304
519.8302984283984,866.9038801418629,432.8275570150038,3,0.17395144987891503
100.28623322581586,659.7873063897952,637.7672377185249,3,0.9689934559559357
660.2112451853019,424.96981026376545,761.7948219204766,2,-0.6180739721518386
821.0582967011486,549.1513204505388,871.1229403007136,3,0.9385492454167947
519.3575060711141,780.044017198265,112.46507789514015,3,0.9904655054231492
612.7778555824742,602.560476829182,948.4627870450778,3,0.9977425378750702
513.718805481578,520.8698430553393,198.42178978057535,2,-0.7587692156876553
771.8319497571363,751.2881814096913,304.0181654568255,3,0.7428271394899844
573.504621710576,414.7102687409219,889.3622518798378,3,0.596634627490007
190.9159962514645,748.2443567013017,456.07982249339176,3,0.5183679524486765
300.05334021975915,201.14133202220364,719.6941465435001,3,0.7669257615998551
230.22299762608012,607.3368366180875,805.2351500034193,3,0.7659080948308208
453.42485046925475,944.2086906990615,301.3972615863808,3,0.9586673173784511
331.4904996233885,333.5095379322769,920.1382809181224,3,0.9813029542225332
408.1926090833121,116.7980369167989,312.9674912126242,3,0.8867707233701464
877.9937210883046,593.5926105391568,538.5368258691842,3,0.42110832292604006
85.2311820274132,474.8118451205949,604.5537802923076,3,0.8293022353811602
396.35209954460726,331.8532239365147,475.29290914681366,2,-0.6940857904150726
646.0038200377354,664.9311828326673,749.0557834810204,3,-0.41218663598416455
704.5257638781417,930.0817294431754,649.5406754436551,3,0.9048306589205055
24.72961224654968,618.9260411469503,498.52276520291514,3,0.9538930271097302
201.9628189459749,622.2369631837716,627.6851392656406,3,-0.21814298292562556
624.9754347892123,84.52658363161869,495.4320242998963,3,0.8707848297330464
317.9329477406745,316.0520079845642,732.4413924273388,3,-0.19874074459580598
564.7063965451597,601.5784015377649,188.22335683956592,3,-0.3888613133023996
251.66977554120507,564.483371690515,487.9117915882141,2,-0.9991708823483436
240.0506926440853,320.70540289947814,734.5897017454693,3,0.44841714411767897
751.8664379420865,211.33496633320593,310.4569916012777,3,0.8205373377682331
402.5019005693015,486.77799374754306,721.8319939131738,2,-0.9861810836356502
735.8376156505637,560.003180112158,635.8362725730085,2,-0.9359221840267538
956.9654445924953,583.479295307015,586.6827343086746,3,0.9987051658837212
425.0545412331879,422.8479628592934,851.9452233622453,3,0.09412521357858931
382.09121013631886,729.8258417464843,924.0096408823845,3,0.9207405456280228
503.84078039236033,543.2967225009592,464.42985668833205,1,0.968936885395514
194.09171552570302,662.0495546699136,727.4171688718217,3,0.6954702832920607
608.7028133995543,108.90434260512161,600.3676085000658,3,0.7357566941843655
629.6157651262012,63.92961072929193,382.25277517786384,3,0.9999222000347127
347.76154485930533,489.62982648388453,728.9849704154456,2,-0.9528196435971222
479.51263333299875,244.42318960196042,818.6269948474377,3,0.638705330989727
678.4551349631043,357.71093072648677,511.43482632734737,2,-0.931171090098227
120.44362011945108,645.3551210956635,577.7634002612376,3,0.6913988621187753
386.43982928511053,781.4189211767964,783.8545444187758,3,0.7093506807678486
760.3130698874758,436.901094419678,838.244310170693,3,0.8527685093148543
451.78605898987587,589.4578484711267,469.48131454248664,3,0.5573178348999699
652.1547007662779,167.35060891955723,247.12382299435188,3,0.9372697869437553
775.96497683323,524.3426632121209,616.8443591738865,2,-0.7769410754815103
823.3237320054556,711.2564849914534,786.487435215814,3,0.9851381501009683
196.22407464361336,466.9582226971568,427.36539259355357,2,-0.6394663919609709
485.69533896007033,948.7545320366695,550.6076659951784,3,0.968445812090303
376.83078186993123,836.9404414820461,525.4042449339098,3,-0.0280202765694274
598.0459410747704,452.6475958284016,140.058366974512,3,0.21009517155169485
844.8981110732868,454.72265782893584,791.7727025067401,3,0.975944522532698
826.6185382486993,370.7938832019151,669.1687076520399,3,0.4018103814636583
372.9953582339294,143.51444664601598,643.8355081518689,3,0.5911285167483442
755.5696568850553,777.097869837851,621.5758926087071,3,0.4832529475003443
738.9930172224673,69.72218519860863,550.5709406969102,3,0.9301872451631631
710.3782365224114,910.1012677321926,490.3956068852369,3,0.9930917035306972
475.2845696436514,479.5685219955923,11.885137808090862,3,0.9571629970417671
158.32540844794295,737.797301576202,294.55886522516795,3,0.9974910897976572
769.3843985967615,506.8207971589319,296.28396330518217,3,-0.3401769493604903
758.0182969702012,808.176171831127,790.0214244342932,3,0.9255424795035799
431.98044003323446,443.0553332314837,553.3451038792779,3,0.5883740525217893
462.0628196268407,857.6459384248011,363.98778672912135,3,0.32907211457775765
477.2179417892005,346.66115800352316,801.4000342767953,3,-0.32471901550029697
539.6374308696326,178.13435062444816,833.0846307996493,3,0.9981328388690899
660.7337756840834,463.7117650193346,95.95112983566811,3,0.8879611208711383
332.2610452075057,562.1980753409085,810.995603880661,3,-0.04065687811649921
441.49545320285387,916.9561138422205,444.5312383365556,3,0.79695925941363
95.80182186219754,330.9001528698768,297.9468099341289,3,0.9808168076569603
672.5985081540684,194.86245290074888,742.8730578330737,3,0.8125932494512997
550.2476930493106,765.5091120926503,214.57981648820157,3,0.4439620947071755
577.2025103666497,787.0180318633301,261.21704592276706,3,0.2838088604021113
525.9452057935642,834.5323172856865,809.4978092142564,3,0.983143454752521
634.6173132027187,591.9167354514366,938.1512805615688,3,0.9997357906075957
215.915722616013,440.11047411893134,222.8337654463044,3,0.5496200304582517
601.8565045724587,113.18947535428492,567.1141373085825,3,0.5998287136306187
882.936413505699,651.3709714640628,383.7588733603262,3,0.8241796807805926
469.29891720566974,123.1656756732843,207.7794580814407,3,0.9917714097264438
712.8776013041253,858.098796068837,232.38570312936557,3,0.9282512034838487
789.3411455629636,561.9561817093913,871.840206857043,3,0.9959728552975778
432.53556303241834,790.7983547917519,629.2757906121034,3,-0.5052910519018169
154.61846154819835,214.60362048120462,284.76613821274344,3,0.9175044625069093
578.9760509324302,206.65068967358013,278.20219184018015,3,0.21146367145223144
472.18572988317453,615.4693071520286,689.5314314754113,2,-0.903003182681211
390.5781529225334,134.50315758396968,631.74544101127,3,0.5767084702902208
479.33879908072777,641.8793641347946,261.1185962318616,2,-0.9363857913638313
115.63600586452938,483.1045705799855,732.4866017322464,3,0.959514927714042
534.9466538600755,465.5609647269939,238.49455433774492,2,-0.9846535535625686
208.8020376959463,811.4769058400428,420.6635529788736,3,0.8695441480784535
267.16292070807015,797.1995528996196,422.57245040818225,3,0.3413477747199967
616.3302377174905,105.74486023623975,243.42677826077008,3,0.9744680825078849
104.35979010429041,580.7348088631445,488.2253628247264,3,0.5806922803428036
271.25106548259913,297.896298538173,780.1900818608965,3,0.6969888804206965
390.26794162126566,574.3143742261029,547.6515775048862,3,0.08360943935841698
475.1911141751876,371.96722373379623,37.93361202016066,3,0.9869824183093446
832.3254445312193,130.74886775219997,534.4940816202486,3,0.912099749994681
514.8720348769845,139.24068496727858,786.4595732740476,3,0.9928917490902203
482.32693780777225,653.7003346497104,44.413359894443396,3,0.9844715465142195
685.0156188058952,634.0491266054214,861.1121240393999,3,0.8196682633352721
338.8647651522057,715.1994622350664,297.02415091447045,3,-0.3531810952547216
750.7752507535167,106.02679040676367,489.7033890513123,3,0.9996004041367184
694.3412060323828,755.297301378121,308.38313471774836,3,0.17661599454471416
387.3994289557652,815.8190785348615,254.78225606487126,3,0.7079411458373044
414.89515527829377,727.7612624959536,552.7718763325258,2,-0.9970472696469943
352.3767143277654,594.8990600430604,879.6514324161064,3,0.736795882299776
722.390131692108,627.4843861719744,604.3704181962107,2,-0.9454503738234539
759.7527256650569,499.0701681330707,417.52751607893833,2,-0.9638043994847187
887.5816392803066,701.3753792288322,550.2403148225043,3,0.9090777806531815
536.1333423665519,172.61503220341535,824.0645722921895,3,0.9947764474206964
607.8028504647159,764.9443008277038,692.3901152818727,3,-0.24365945805683484
581.8052410016198,55.774010272491736,315.17122913864114,3,0.9617709190429886
689.3802629808391,525.1057940919943,910.4861219356612,3,0.9717673900733494
482.03292634247686,249.3524222054373,901.2532676239975,3,0.9979500995559616
576.0437544081086,859.8501935081918,469.2214527986608,3,0.10965374292426647
656.7246970605104,55.32212866669162,510.08010690378313,3,0.9993154033296135
462.62725188327767,127.78722952187704,679.5552587519458,3,0.7032879863631197
224.2046550233444,648.9146994751636,419.6658884244706,3,-0.5271824785418853
441.61885243450985,188.65044359618776,301.49998303417055,3,0.17828806922089688
193.1939265105158,210.60802507794008,310.4995779945332,3,0.9952242028941467
210.697180510224,728.7993430981603,224.78968639595075,3,0.9916289898696639
631.4829848113536,537.5906180033738,774.8213584652361,2,-0.7158162495268681
458.9456682208742,414.62299203760824,837.9367576925193,3,-0.15425582329354476
604.1910893615566,814.995359649578,366.48636302444083,3,-0.05735058849210369
812.5528649696793,432.96974400780385,669.9631402698948,3,0.006900980074983338
192.3275133658584,535.8805608308907,275.0245844189838,3,0.30586109918393617
674.5959172394453,395.4596537165156,862.9365842524296,3,0.715140558900601
269.5161456584045,529.0615421701473,497.92122800910886,2,-0.9499429246631833
556.3791078361645,775.9299512782245,465.1946159973821,2,-0.9072384281120939
255.83241080815046,884.3090730743814,331.15856829886945,3,0.9709073819454652
231.59364222170154,291.09601008566364,506.382179188837,3,-0.3073723171287024
561.6131527597207,843.302039190565,177.84870353142335,3,0.9964902645258293
584.5051634182881,401.8776139114306,108.12741122859859,3,0.6797510289311648
603.9424485815122,774.5376309221098,542.7291246228551,2,-0.8125597776907844
437.0831885996545,162.85003269154586,833.5379773934995,3,0.9906881685228435
393.6192102683319,215.97580248898373,680.523645894303,3,-0.12549217804833832
358.16079088200183,391.0010855628514,557.1111414547878,3,-0.5664893738648381
530.1287898615589,325.4632024777704,44.86888803673694,3,0.9604290338996159
494.1362327156866,270.9259998787039,388.46182129836046,2,-0.999933439039851
891.5936525169432,380.62590249298677,323.2442551470507,3,0.9433283970102184
157.22629748735483,692.0056913176063,720.8074875300885,3,0.9641533209196246
519.7964910707523,220.53905953536835,188.88294409209783,3,0.7409191271803502
333.10583981937714,527.8793192501959,582.7046210019108,3,-0.5731988256220686
393.8371669401208,478.1291309470802,589.1212079347173,3,0.09101032466354306
783.8875866769041,259.9968452018482,169.8066063974163,3,0.9165888236632042
644.251274297138,842.490055775824,275.4637102790408,3,0.8729818451772717
467.6216986502848,118.82316388303316,543.0289157738042,3,0.33527756633870676
62.22400985874099,586.4595843611795,403.2304134813994,3,0.9834739569055974
773.801115797152,576.0308726888557,779.0579665220265,3,0.5110431129132067
608.1808563013242,619.9823405724525,436.7662045004636,3,-0.38332551220048205
865.2177743822259,527.9132259769541,163.46208125604366,3,0.9154125211514875
431.8490690379749,925.5396265049367,541.7970027190377,3,0.8642253536596846
578.6820637647758,410.3263752660275,148.6546908219828,3,0.1381297929883004
374.78341239449776,149.9336539593873,647.764772024006,3,0.5335016906125724
116.61991441604769,490.7729435359431,807.6487062131689,3,0.9460619442047967
234.26170245540533,760.4239296124149,699.8685141023691,3,0.7760072969252405
241.19205437822055,675.0865229103827,732.1333143888645,3,0.39373650535095
110.78925357271608,346.5757558686038,383.9958271837025,3,0.8726250530829452
166.99276567088285,812.189805557938,519.4338572920843,3,0.9841803001764728
406.2330259453152,474.1281607010729,892.3102625393905,3,0.5833536646499733
273.2234679309091,363.05358911679195,80.71717074274775,3,0.9237377743390104
86.85710020515015,480.73047750843267,364.24604618073164,3,0.8807614260699157
926.8172499557331,680.9570331804804,525.0506198189295,3,0.9975473706195559
712.1854252697701,584.7275548626227,394.9145054841401,2,-0.9992900055386604
826.5713096628976,241.65496604496784,680.6393418991445,3,0.975541086559299
492.2800199058096,571.5470703425593,42.98582646764337,3,0.9956055543442736
398.3316206955816,653.651774786817,521.4398400503899,3,-0.5385685038267367
623.8329340515992,534.3961146879316,572.9568251900054,3,-0.01784854629052745
360.9555542657692,359.4094000161241,78.83372281860157,3,0.998467626797665
197.97734431672498,334.0430344945111,437.7551068106236,3,-0.1654082452402853
165.65045308842917,753.0649437655146,291.79038754842946,3,0.9999147114626052
811.6249759288045,272.82645531030016,444.32864287772725,3,0.3988094502159138
819.4680522105187,309.09815975996355,209.40806204736785,3,0.9989680941199615
817.1649740705185,553.9780882056529,367.9616689788262,3,-0.20024126164376646
531.1421969165195,335.4247155162109,160.72572749015413,3,0.24308159301690727
742.2726024884469,351.3428714165856,214.77887259119566,3,0.5652245105088328
828.3824837251108,805.0708472986355,664.7243406702331,3,0.9923523836633049
508.30583881294314,569.3302692952602,484.16846842328965,1,0.8891089657394824
815.07561690237,571.719977273875,478.88485424295345,3,-0.5239176961537811
798.1041956295389,586.024399090457,589.7985412814589,3,-0.5341193483070406
175.91286064376655,502.1865267801693,722.8151364866181,3,0.4472764932645116
288.13577509846186,138.71101141380672,603.8183609374504,3,0.8531296183238931
760.8060528889796,357.48408188877454,226.570910237484,3,0.5793090113995544
631.4512393661062,840.4440934689682,780.7663065529321,3,0.9920844623264996
529.6577718156226,167.46735812949188,811.5914271875291,3,0.9836453730923186
812.7930322142635,423.21406295954813,397.10890413867406,3,-0.3359566190166892
368.09863379307774,494.781504246932,499.4557077960757,3,0.21111731593975874
481.90317842657447,412.65566883117776,666.2110232250294,3,-0.5767399896907
622.7218092846088,494.07698216614415,189.47085596346037,3,-0.3925992542655689
182.89642479025093,493.60176097569985,472.2615750280684,3,-0.5899655081281129
212.3329168631195,492.04853672524285,418.88246470491197,2,-0.7921421933837076
265.27837430332255,902.8721495007627,464.56365960965474,3,0.9997734556409236
109.93180242590029,417.99209411727645,574.7003885609249,3,0.59921171008314
794.0692009834761,537.2956523665146,530.8892769278666,2,-0.8006355348917885
170.1705452362098,403.1920207617826,834.3458815891973,3,0.9883336474932262
349.5081882392178,910.8606535352163,645.6998698936188,3,0.9933649040896865
441.1918858304955,479.6570011688466,616.1036973332482,3,0.2150797150834197
38.02273086595398,401.771788878881,386.867893893036,3,0.9707199484079513
495.87674739120826,124.7288119189568,409.3827655617009,3,0.3506105020374773
687.1542552011435,209.8305984458697,353.10354778621456,3,0.1984876095316362
224.31566116015944,222.05299111243303,467.53230858384944,3,0.4410599097093885
752.0252213260351,340.7023814920438,621.0525063300333,3,-0.5490532790771948
631.658204915194,825.4780069889806,258.9795855263688,3,0.8073063454922679
488.7060409386157,431.82361053052375,492.3885883221829,1,0.9025744566072725
709.7225691113529,932.1665358879262,530.2915345762605,3,0.9840051097095417
740.7277190447619,77.65738355289142,548.1384231939726,3,0.9599054960577724
78.56204854015158,627.2837240117844,467.15751020988074,3,0.9197724922180036
692.838769807906,310.2175217682195,242.79668308033985,3,0.1707501188432022
560.8486132483597,322.35752187692526,483.5492260407648,3,-0.575073888050456
227.6992757599684,836.1977999050931,553.6703651866752,3,0.8852454085399898
812.4304511686702,280.1839233923712,631.7104471686631,3,0.5820401515698426
411.7146523796328,763.3192109479053,694.0813020496336,3,-0.32624676010025816
690.7455314832114,415.0143853047822,623.3519420568061,2,-0.985839647209205
402.6534562928258,126.6627533656014,657.2168522400002,3,0.7205013932554639
329.9958827141677,102.72177139137706,440.19676885906244,3,0.8871908446994072
379.04883351568617,362.863863347624,583.5471447591013,2,-0.7145375828480114
96.68971385475777,354.0659810426944,507.21198231115363,3,0.8331752431155364
447.54950914116995,870.0688871067495,759.9984035236998,3,0.9798551877048295
234.9399915169388,262.4246697516971,299.29386826046346,3,0.6348386410862048
288.73253725577086,769.4442755457139,681.0886605936472,3,0.36771901667635953
306.94609089193824,620.0135315919429,418.8216252395649,2,-0.9828681129190253
159.43454696989988,519.2044578135807,135.99723090840743,3,0.9067651700241236
846.3739253039193,746.0904239282296,241.93900588368533,3,0.9171196629301441
201.4088528093506,296.09375495943755,281.5483652668945,3,0.7767775479755569
706.0453689086637,764.1323860730793,303.0335552865302,3,0.38497587719349924
713.946337674556,306.1726623503192,116.41873474381603,3,0.9870717447014753
134.68903338394156,393.2328425419939,685.5469529440414,3,0.785657267108813
549.925372986744,481.99705482374776,557.9696818099411,1,0.8377565951672569
599.6226776707873,894.20238310726,355.0459043265506,3,0.8543412201127257
751.7825336502344,175.80835526114257,563.9301134061656,3,0.7083063087172679
722.2918559662714,652.0578408646184,705.1684386124144,3,-0.3297011666630637
201.17159508580264,687.2205787638825,375.03329561456053,3,0.18246702063313602
275.05342695304756,452.7623190629916,403.5226334605804,2,-0.9975577754484322
704.0390267408229,247.68188544449976,789.686054522536,3,0.8785804251483752
443.72477766687814,385.3892035285068,779.891924677646,2,-0.7089016399843435
379.2862793855145,593.0162769662084,667.8332887139136,2,-0.9211120064365711
288.61123885932125,940.773780724119,433.8721733252116,3,0.937969689153635
645.5831042583079,248.38288880292657,597.1830668819438,2,-0.720415157530074
75.69836572643906,492.09677888311677,716.0407539331316,3,0.9945652797179054
344.3410848787453,613.9656253256654,671.0373824820894,2,-0.9984930402500583
697.0422804226387,837.7195037688704,773.677882968611,3,0.9928314386958855
226.29781769149182,534.4391676807312,582.947864394974,2,-0.879122192049114
488.6858314190451,667.7021675746561,217.06863835830637,3,-0.45685768474969074
685.6761711547028,290.3738910035192,559.9648144876851,2,-0.8905522813913006
765.1356589068318,588.8781996452012,318.84937601257326,3,-0.40289360045769457
590.9141030750186,728.4158761389723,477.92512758985595,2,-0.9944240235783048
713.3259290404587,654.9257124312978,549.6221314082738,2,-0.978511263494709
357.4159380945494,315.84385944713745,166.6612472714164,3,0.6120926867133164
465.4749166133774,107.46529721852328,193.1469698190893,3,0.90313668404951
578.5102759951566,235.2542728033923,548.3788998501514,2,-0.9271494881741815
874.3399984788238,263.5670086821209,291.7690522327221,3,0.9567003756969097
668.455779843491,94.53586506837463,680.2260868906227,3,0.996710824773382
776.7275626277732,786.1488631411568,676.9566362011707,3,0.8830193488854677
363.2672667270441,723.5091363418574,252.43409621887346,3,-0.015926523680310306
676.9327464683109,376.4670127530352,431.2875102579339,2,-0.919790706527981
554.0010687235894,571.7297385299468,630.3176627491019,3,-0.16997793821685217
770.3200396741671,304.3202005247798,473.1469184869554,3,-0.38130601148202603
78.22325285263464,514.087662373497,755.9900634251749,3,0.9364963119192479
610.5544767466083,462.43694595177163,841.7855302249978,3,-0.005609312398973111
272.3422302683488,646.715119798542,413.4988784362539,2,-0.9038725738049175
311.20288614194726,676.706394621068,563.2544137141804,2,-0.9842766046247993
894.6170248182923,563.4611759422564,542.660158103182,3,0.5565611591834138
675.0475854735017,635.6913760690472,945.9088860720032,3,0.9126277456309526
129.21012816960442,744.3390166430555,588.3296684292084,3,0.9717474867263693
245.34149414026896,442.0391729089467,917.8115996021666,3,0.9408281414064202
156.54310441294706,365.51046131866116,438.6418263931445,3,0.17955197615885374
498.46815613527093,147.94367945589048,553.5671155626756,3,-0.07957816547066478
442.16535203945193,195.90371213824577,456.1573491387614,2,-0.655558872217119
530.8480604152575,823.6677572362693,715.9920218762445,3,0.40819808737781793
644.3643006293648,76.11745039043028,583.800432539592,3,0.9806129634126661
679.1829279954043,716.3310379217261,682.9100085605015,3,-0.37571202094704326
869.1808869904303,645.0884432042498,198.3374880803115,3,0.9098676596433155
236.55672804799656,733.1757763487678,329.5417979350719,3,0.41611036280627073
672.6268947385051,676.1965981994422,773.6767831958318,3,0.10023835448948147
392.4906539041417,708.1498276082882,479.56986938364474,2,-0.9621089889888205
323.8322804729903,678.1391966545415,238.12772445236007,3,0.012465759174061857
602.3916824135423,804.4924727155847,705.9433919285012,3,0.2884986784245126
532.6315797878322,716.9130518330888,789.3542250039424,3,0.022458408354161418
851.571446096916,473.1763780932579,331.7244753247436,3,0.41286669566852285
316.7344184198909,256.5872505661335,818.7428096163152,3,0.9167782255143515
549.5970663194936,819.8659706166532,307.41980482599496,3,0.21859010862864506
701.9728267133939,191.28895763144305,365.38354321460065,3,0.43949956946597696
773.9666940284608,396.61683711328897,170.54567403085298,3,0.9158022816027783
718.4624290988222,165.1244693291216,756.6035476003603,3,0.9961219521892782
660.6670253252744,500.1716020061123,165.39484832876073,3,0.14005550296980412
648.9625515101815,426.191072594531,305.7015753939607,2,-0.9997092689477168
795.9918609104801,270.470810941563,529.0321645695022,3,0.20485583758179177
599.3519822868084,661.9997643077282,243.347789405171,3,-0.5784350194661102
523.8722625626813,594.0210654748034,174.31848182374566,3,-0.3123836097539222
865.1817862263049,639.4653823883483,254.47610499427208,3,0.99408647113746
592.3703561611854,945.5873041585437,417.9578648531277,3,0.9952598404556797
865.6378520026013,602.2425432722852,522.4525554327581,3,0.2707542719792885
517.3043253812689,688.7089215662303,574.8786457169367,2,-0.7417867596441596
622.1470035749243,264.8335331000572,266.18279698158176,3,-0.11895829826035458
643.2263086073999,154.28349016230746,312.43360143277,3,0.740106255440338
590.5893783417698,267.71051953768676,605.4209826158426,2,-0.97059799279966
633.7030840597411,314.14766658718764,855.5949469375915,3,0.7812192068586158
541.2712304607536,369.7092281826171,920.4616160305712,3,0.9234769299533453
456.10465539736754,420.44863552760904,513.1296798220441,1,0.7174788778977623
438.25122006913983,793.8473888232952,506.6651136156348,2,-0.7799660221548029
365.8098721176658,531.2236164162333,328.91705632062974,2,-0.8762951459005925
503.9005655020128,168.85839745351194,351.34500991061213,3,0.020976055655880416
857.5655928566858,419.9876400970186,480.24295462488885,3,0.07849286169417993
398.2690919734392,850.3097739446061,764.7932532102785,3,0.964435100108981
516.3919625341791,584.0684149098594,972.3509828490243,3,0.987132687284661
249.44079940233388,254.50748274760215,335.624643735991,3,0.3683939408423422
770.3684536615997,468.6707205528553,896.7521680168544,3,0.9844779682077984
470.5834952882474,449.4114231514898,260.8007185128397,2,-0.9934957167060229
618.9607219540743,698.8736192529842,933.8496980387066,3,0.9450233091820519
625.0162483218993,238.3526864675225,611.8536035957728,2,-0.6755332306579073
309.75558134103545,731.99119294674,335.9661651264665,3,-0.2828865560198816
250.52045610816177,193.99275114228354,655.3208204103554,3,0.7933381856626142
350.83246544547796,390.11595203873475,676.2404579525233,2,-0.9997115522750014
348.3184098460862,330.2026923188113,377.5490922063215,2,-0.9978802917285252
96.66710593848093,283.39809905953973,547.2776149218215,3,0.9917169034129545
332.68786869757724,713.3727009537504,137.79958766992007,3,0.970676924704342
777.5923137184246,681.2504538940278,715.9868581481142,3,0.4780704489544962
588.7007487560397,625.3942193845725,521.5601779134166,3,-0.12443148018588109
214.61870308865272,390.1354096235925,620.7626538119046,3,-0.4609200302161728
279.88129264954296,880.3427513443725,374.0231321317602,3,0.9848779120636167
78.22119123171312,541.0665739110618,630.3677751711475,3,0.9303647735769526
181.78873128209872,422.7066490936088,180.21248344682795,3,0.9862662399996521
116.6730928983547,247.6196322065659,401.62467428999446,3,0.9999896199874991
242.66796440089112,449.06768524553775,600.6251443511258,2,-0.9237508395923608
578.085078750147,443.2295921432148,310.0165500912323,2,-0.8261919275097703
366.2927472730928,886.7880465729282,528.3092693731863,3,0.6526201379306799
475.0973466304279,454.80321780077514,14.00798312537499,3,0.9590175612519389
846.577198855873,614.3907096175047,629.6753472292933,3,0.3675334849023178
784.255769580249,169.5571599764959,490.0445596319432,3,0.8855240637297529
316.2366634747138,500.4583557270018,819.7030582363677,3,0.10487085167260134
773.3155258272704,548.4450365977458,136.14075963709692,3,0.9861211565900296
379.3753074189428,717.5443177089344,76.44674691078323,3,0.9481608262517977
639.3152961806705,372.34218120929864,570.3821787049839,2,-0.7206859730043945
454.566867856928,458.41996868428157,645.6519284197162,3,-0.1683205652530511
437.60836541200223,100.43391874871321,392.34559194448246,3,0.739171192154084
152.32362219657392,435.42468549590194,521.5841327672102,3,-0.10621628563762471
404.07736802605,555.898885910078,22.971937517275663,3,0.9545439866573239
131.69294796743526,542.559670083835,498.4859626494292,3,0.13399169897566116
374.91518135516867,739.5814230655908,899.5280439409399,3,0.9811936825553802
523.1465986694786,139.42571490508104,460.1746969998557,3,0.02836231457826571
682.2359609967705,609.2629499474637,132.65028667772415,3,0.7942713407890741
647.3694991117953,191.14783960758686,654.8948229781936,3,0.2041349871065519
431.07449188302735,802.6122487439998,425.0133787456941,3,-0.5791291954531792
304.2936506718166,654.747480033137,463.45470083505194,2,-0.9996121774860398
151.8074605567875,440.0662683537166,585.1573936083539,3,0.027282179385827467
471.9739619905056,329.5298983164103,359.6965549619926,2,-0.8958715698775037
324.3256294406083,382.35654207165527,56.49507769388129,3,0.9475689884826836
663.6105220887206,509.03405869477456,301.6810025690222,2,-0.9989123222407811
478.5694670430204,413.47094803829776,684.1153872137849,2,-0.7496004384265244
647.9304586596048,215.2930538699469,598.4290135582792,3,-0.3702950410813305
502.114976157071,429.9766808100287,858.7556341680256,3,0.05795131517259404
498.489854213346,509.57117878603964,731.0275465096416,2,-0.944858835402803
738.0993085693844,606.2078096375124,429.8139226139027,2,-0.973024630774968
496.0138885249803,175.9011395271214,553.2914658359064,3,-0.4648690598715868
721.2345777461641,151.31035201510633,706.0049415088728,3,0.9938730400309638
446.40866231803767,226.05686724019415,803.0965654427655,3,0.6725871373610163
682.5161939540657,426.7911104077017,597.6973717711692,2,-0.8757368352350174
585.3802192298185,608.4239072216393,576.2964453789167,3,-0.16189213910813385
519.81949546106,720.3040944596141,787.2178618123623,3,0.013978945447455805
570.2828846074717,712.3549262532093,386.7403587761266,2,-0.9988090722305324
873.1192440887579,511.4449994626621,628.940175589675,3,0.468546077847951
584.6821134089274,432.18452711706556,703.7157421646293,2,-0.9427948412842198
691.7360562159572,511.9413803434114,223.7265926498515,3,-0.35809450068717885
623.7395837364835,723.6252842604099,867.3178037015358,3,0.950698438342758
352.2991186773944,409.73285488177027,143.11085349385044,3,0.49055896692985146
437.9496979600203,102.06028648176124,601.3869136129289,3,0.7071112942918646
521.8948749615116,307.07600100278967,906.2963836516946,3,0.96267494185602
195.70277443880735,292.4666220773634,338.2176051391095,3,0.5606396199677416
253.37073039586454,323.1739096756787,368.94558486601693,3,-0.43770938180383046
222.63215109540036,653.2545725574932,675.6276661492464,3,0.010837506435117387
214.6321150828565,126.40827708895097,500.2478880747633,3,0.9998825225079628
497.45797793336,99.6435311665862,583.455477130617,3,0.6386253360764056
55.823611092705505,553.2603639340218,647.9834508875258,3,0.9995131673149233
666.2340016841138,908.175958253467,281.5230030665284,3,0.9448014951224946
234.6248200317397,895.596641319377,593.8032132583838,3,0.9712629024272212
203.6902987073782,374.90727282246297,216.95474667692406,3,0.8289508169033503
372.79811429321575,892.7939411475633,351.4260810275034,3,0.9037807427388252
643.4189541061539,428.5312271530438,533.838059893047,3,-0.24883478467334746
450.1729911892406,622.4976635134756,921.7166049947075,3,0.9226270931632263
296.2533496475127,519.6708498934136,440.47044353840306,2,-0.8267619382260339
458.6623249967055,198.06160639495374,307.0815441623911,3,-0.012845479144689144
668.0561253421289,785.3120545208168,216.03341550775613,3,0.8869978351840638
198.73592672998797,787.0039784031871,746.2896805147363,3,0.9777767029256913
480.4828990601586,759.5999616645793,439.93889842513113,2,-0.9817139864595257
767.6738422663674,232.11250303996377,237.19574975155177,3,0.9929886194934098
463.4205424140646,615.8778076430056,315.2145350638702,2,-0.8866262534220819
200.27067108979236,526.8112872301672,815.4877486963405,3,0.8854937884605972
569.852544132518,229.6750387695169,372.15903490058236,2,-0.71464099884188
622.7935501406257,459.3743776849758,920.384618745611,3,0.9101563774599308
693.5119722133443,339.89705137578,345.9685914190491,2,-0.8294192356503325
395.6693136570971,393.7614692879903,34.147655287753324,3,0.957570724697567
459.241087182613,806.6985326589222,721.7077004612629,3,0.27501958435580715
190.44364681123628,440.50506559656486,154.3564392867025,3,0.9998288634398825
796.3111399885861,591.2607696496689,301.71084622177955,3,0.0943763984352106
908.1363024580003,583.4550536580658,342.5088487783047,3,0.9406047160930864
881.0388350919311,322.88992989893603,530.0609808949774,3,0.7658290201151592
81.47676735191634,301.90585012176166,562.3648299707913,3,0.9996363478739796
108.50770668776188,577.4517799563333,496.49657450337656,3,0.5213417549951573
770.3891834156008,322.32158810379184,336.95568278308684,3,0.010805509865687398
769.194710480695,489.02503242561,696.4277637557683,3,-0.399715163952053
801.8006966415672,336.54645756109403,418.3702541976333,3,-0.12777735587918218
169.51896849321602,583.8653486755898,622.9052909828727,3,0.01268934182772365
914.9425784535216,609.4956614844658,708.0768638472786,3,0.993400093996673
869.2209255595045,439.0404489822248,200.28937349693632,3,0.9885181180020834
27.665647622362787,569.3158621302844,539.10471430006,3,0.9894940821777324
374.2466467387503,174.53366882796783,290.6706689080735,3,0.6149660308859868
682.7073062653172,586.1367880220788,909.5525622892914,3,0.9836109151802099
247.06870144401293,106.03730297449899,523.6663228362679,3,0.9999905174017546
299.80320324610886,336.4256041213054,369.0167287889958,2,-0.866631512768072
621.2776968162682,689.9584802314679,139.46779228124828,3,0.801341594250784
655.5349669151788,720.0676628751753,669.2812219124014,3,-0.5915951850598231
339.6319391234711,338.79795837683946,605.7613629704528,2,-0.9988477527152994
411.9793317037056,61.831064246398725,570.1184632337329,3,0.9704663669298718
492.13402422786766,228.4515791635179,801.1715967926024,3,0.5998764515736401
424.8910047702,885.0834960015457,485.27274571727787,3,0.4383364894853712
274.6375068859314,359.5069432632456,635.23632297571,2,-0.8007294223300778
399.4294097922525,274.07311857348395,874.9690500857803,3,0.9580739325901202
830.9083204650715,195.38550323755976,443.7118313516657,3,0.9735080454504347
517.0690362466183,664.8313589552868,958.5410342267061,3,0.9636744040437593
802.3599923832571,362.1337787394532,270.63064639339706,3,0.578496278084588
762.9124182495724,850.6007571601457,475.9211974728839,3,0.9043642583444984
786.1295014380079,247.61619467073092,728.9082833117646,3,0.9384873172460704
284.1032273677786,350.90456420059155,340.2331775724978,2,-0.713508128812283
658.6813973963814,613.0855938217446,398.15921414822566,2,-0.8777073096738274
730.5701425659804,874.7636072612271,642.9022204291061,3,0.9955920277693597
955.6603284665813,627.9672404547318,411.3032806254845,3,0.9834598644087162
624.4403430415525,85.96122779323335,598.1369881951382,3,0.9301518763497748
301.8504220741027,558.271210600196,458.1722592934969,2,-0.8061690856813354
497.6124487498874,290.6195959448702,775.3621574378561,3,-0.22640059804196236
703.2447949312426,150.74985057444678,542.4550048805428,3,0.6082209569093876
679.7026123985881,57.07131666105969,601.0834191724371,3,0.9596692311821735
758.6019213105293,364.91907297057145,484.3785081676926,2,-0.8489085041050491
101.31624130312034,475.56006100553617,374.8322610656578,3,0.740084873835514
667.3990366548613,887.7441848037198,360.7089285754445,3,0.9373668936874581
153.65420101196682,644.6147815950959,789.2757161207523,3,0.9975383315782728
723.3658944537929,548.0271260061634,355.9237642445866,2,-0.9726524785465552
206.69277768960427,564.2406402331541,848.6673832095314,3,0.9915033770926492
600.0789593572833,372.59567655974035,187.35100133835246,3,-0.13737371593404532
140.81434686670758,277.1526997454925,295.0636466092502,3,0.9999482399216282
204.19934382637217,480.1882860009692,524.2926173294936,2,-0.8056229281451728
122.79786644203527,689.8293777565497,700.4696539836796,3,0.999720365906647
703.2807056177527,520.185536312628,151.5723795658188,3,0.5798729751584584
393.61201272571446,924.0550849481615,607.2816493841354,3,0.9621224761626949
716.6644140933561,589.3312128976861,799.3328433858712,3,0.2684412908132932
633.9400432779627,308.87222926650037,388.6166633605812,2,-0.9977998259131137
134.06215859138493,580.4980847471581,179.75599486398474,3,0.9399724671068933
588.0345247904446,640.4534928731623,36.3153664329452,3,0.9423081110831851
663.2478448071216,200.64422547889538,250.81715907615708,3,0.7756901067064362
934.9513518256347,479.08883857757957,421.0353932014747,3,0.9259190797141859
526.152750571213,435.5773368036682,60.57510512110653,3,0.938270549551308
228.0528403862585,440.36369892785586,642.7102752269901,2,-0.6531494769460192
440.59581671936564,493.73178030586473,757.3998200361564,2,-0.9889641440537238
435.39051920430336,741.3047570474249,502.9616075800278,2,-0.9980803507134931
368.50548179451835,680.9390902677013,161.96898399795612,3,0.5968443503693203
40.037433301618684,416.11775113933123,361.4611970223557,3,0.9633769337094268
581.1918846596949,262.1055860047801,653.0400519890698,2,-0.8321588231136918
117.92847130370609,493.96504618748605,642.2252979224818,3,0.6245677346465198
90.09994078947958,640.3375352916526,534.4117350756055,3,0.8760198645136553
513.9655603665378,217.45691181025683,739.3759071708621,3,0.13131047080666988
351.8891385948235,807.7270629226566,562.4154718399066,3,-0.20873982381257694
253.6809049408284,336.76371427255924,197.27529301307612,3,0.7822538960714696
521.4345366017114,591.9211504309901,829.3713249850638,3,-0.27315860276930204
771.3194874566697,202.75894238411286,637.3420628918435,3,0.8018898842500112
570.6486492718686,316.5859224388196,431.00610518417284,2,-0.7847001479261378
527.9194054808829,534.9446807305461,751.8103087113855,2,-0.9996956261672293
496.19844302443795,369.30488397788076,810.0251842082231,3,-0.3585207506898948
207.29462207547888,732.5616612001678,479.72094818573044,3,0.1864187766952531
234.79179547444141,530.6257538220867,122.74997809327593,3,0.9949151552601831
599.2597977793406,151.08210544409195,322.70848736883283,3,0.5783416600255091
200.11735411202358,339.1220413582661,348.6768420968349,3,0.15823191290188676
436.8110778572336,805.2764504258776,146.1883300390757,3,0.9993344133007925
671.1665834523016,343.3741048355727,497.73059020617904,2,-0.9485883763760894
419.27531469333155,661.3470705140966,437.80123352739895,2,-0.6027165829572606
553.7872272128267,535.1017788175494,372.0594409201957,3,0.049750500710167705
709.6988211002462,206.86089447476664,759.0585186737279,3,0.9329725994628456
629.4935776327961,775.4297175486529,264.6763081586726,3,0.3319081407213947
417.1682382152834,518.0832321562219,384.3092433165115,3,0.045754284392743934
357.283343040771,322.4944528051984,530.2500455397361,2,-0.9376224334675514
740.2892086306708,672.1102604697357,425.31449749088813,2,-0.7369678495004843
83.48675678677586,273.1307992494385,380.8083093421556,3,0.9577012933367418
414.02904559592,601.3850180294223,124.4284307794521,3,0.5126634697818279
935.2554544296419,596.6753077075836,430.54216288171267,3,0.9662789128234119
773.9905776478089,511.80852095910325,464.0612949489249,2,-0.9463154478905531
355.46183300876254,117.96755697870054,760.0426803694497,3,0.9755980518828953
419.71422091744125,480.28108734540706,12.488286568312246,3,0.9318678161603318
425.9037519858643,751.4965251449817,734.6744998532926,3,-0.14115922378826462
413.0043173109302,429.17436541294495,598.3759697856641,3,-0.038600705606056995
691.7659089873388,635.9264042685379,559.9042103092444,2,-0.9859231289063004
444.59388833825597,900.2320976103084,323.3283882022013,3,0.917012379314967
90.30320562509952,263.9682929096214,534.0124672687757,3,0.9973511556597807
578.1412886290308,226.58912862458513,829.9573022740508,3,0.8826918260196277
170.3518016055584,220.9322625131066,623.4628427058207,3,0.9582165206066543
383.1598790511227,479.81819572682474,343.49296039254705,2,-0.6649948811868569
332.4655998670885,233.9571411043897,558.5639472949414,3,-0.572991422331855
145.16796116238885,243.6522672628183,595.2696687713534,3,0.9529703569292796
124.89289412065874,549.8351194131598,494.65473867493506,3,0.24412198510101013
209.6554229103643,811.3131184832156,603.4371663778708,3,0.8992631404384595
888.9976418286965,402.0839109080981,755.620767943871,3,0.9953635689298493
401.34245393741276,827.857786553369,317.57241462739717,3,0.37605742993945196
231.44212580320388,644.8802670134086,115.00002829251154,3,0.9478512796828537
612.3628304247338,472.67969842640355,420.7828491270613,3,0.09330879209437777
551.5510932177133,645.1357240125369,572.8594773063895,3,-0.34107014695599697
273.77363490434715,692.0368542513613,285.01209062220477,3,0.07115845564018108
459.7459627270005,299.0758500293954,663.8947289462724,2,-0.9925943467643314
507.567818536396,292.3823038958612,78.72520109519765,3,0.9999542760089171
131.97862279462058,764.4733059728414,360.69011478942394,3,0.9972677516425413
969.765627737519,620.1963253702266,425.55390498858293,3,0.9509796386194678
621.0381426460776,213.3664366160799,636.1403811564049,3,-0.31514156169978524
696.3836501209211,881.7453834456476,326.82333025963106,3,0.9959613094985399
632.308312466523,396.387742750266,162.4193470428248,3,0.22502561323884734
419.7839693057189,734.7295749619143,727.68870064558,3,-0.35520652328232544
406.7455652093311,753.5694622472103,432.2393039453002,2,-0.9367129874066151
628.3473837548449,200.23191834361788,132.96150392344785,3,0.9492052163272384
443.78762665633155,62.57507431717657,724.8527144388892,3,0.9288531761278935
476.5295552926706,373.5523717518625,621.210199868514,3,-0.4265958153216873
103.79239749971025,560.5371409280947,682.1084773403428,3,0.9125944038575808
271.7778369464683,421.38365411894085,774.9906193320428,3,0.06338274154368129
495.5765139819729,731.6638620649543,441.9697829551522,2,-0.9754329656708371
797.1535370855058,279.57140769895074,298.6025921552454,3,0.7656915068938964
697.5665442611659,375.8651534767563,71.47691938234446,3,0.9622470013260046
550.0293696860907,779.7342409259849,880.0427033285544,3,0.9968016604329551
151.0550351275076,509.2485537708743,655.6675199717407,3,0.29706132319775946
302.79362135879995,652.5754093498241,251.6166569404127,3,-0.14011052346694158
879.2573676719646,625.9035432696716,498.33618287624125,3,0.5277799226569607
232.47996655551984,899.1838071194501,413.63654096759427,3,0.9610179546569234
733.0492008422032,698.3539826623021,118.57507934115696,3,0.9577802437943845
492.41403133947193,744.3036463794665,234.65029274913508,3,-0.011647395595385067
798.4155564151215,323.880705022473,293.813692765155,3,0.5717370922733447
259.67241170554576,207.92348912900326,330.5000796410163,3,0.6984765822813541
519.1916285742548,115.38189950193589,397.02655806100984,3,0.5154783029831681
636.2561426901851,21.360919920507037,545.5957495331587,3,0.9012074301144013
869.2213269866812,360.2949250065375,628.3627086551459,3,0.7050344066054489
403.5015800060986,703.881169422925,343.09199210758425,2,-0.9545666210909873
163.81239687671922,576.8173516855703,560.5715463998134,3,-0.16627044344418762
294.8060268202539,63.270245328610144,589.1945937086891,3,0.950407006276146
592.4988055754509,106.82692616304269,321.35931333076195,3,0.9208331918836553
313.9130428842595,417.7976545613756,795.1799953118316,3,-0.044857998520452795
652.2784198001088,802.8007449591857,379.0388264373125,3,-0.024696575396423497
866.0235025866226,201.57658761262022,392.0029590947056,3,0.9748276020542634
553.1541088345614,597.0801126368531,514.7864625518345,3,0.488152342500301
174.87334271490917,530.9388646039768,231.55090308340664,3,0.7797512620309067
820.6544588026521,461.84625816657467,285.72779968508235,3,0.37052845107125854
462.4716922215252,379.2111079816012,648.044545864107,2,-0.6470080522480336
93.3001892238965,786.1101218703717,538.5556029186813,3,0.9073902876551786
517.4340702017583,415.68382556383875,801.0716126839673,2,-0.6499743785813372
411.73011384883995,335.7545309417969,231.31236392685506,3,-0.4832147031743752
515.7415631442746,644.0712244986139,176.03118028254096,3,-0.09708685993318357
237.5830182322456,362.4404586163229,682.1253272358266,3,-0.19996217861033788
682.9065959001856,893.6713128852475,296.4981641744083,3,0.9885680214121567
455.2345195856866,212.31642256446915,140.07236273796187,3,0.9960001240640668
446.85314949299925,301.17984483456627,509.69255618415633,2,-0.7636298768277052
895.5396988764553,591.5312763638659,263.4549654168836,3,0.9999295539095208
817.8431002852483,754.8594736352903,403.68566566791475,3,0.7405662219652904
618.0837533164967,344.5524723831158,660.907596297541,2,-0.9998747398477665
531.4206141122521,472.2319009124892,131.71419889748282,3,0.13260591566319527
149.96405559283465,181.47698387853495,592.289137167834,3,0.9816839894326593
447.29263914741,148.19383457817247,695.9891671074568,3,0.606375677018155
460.2813894620238,824.1014663206632,462.89158496620973,3,-0.4628907645917168
486.12328733411823,345.45869975691414,86.41488611725123,3,0.9213138953077369
644.08842065849,441.6956466020492,720.4603248507364,2,-0.973854151242298
611.5599577513194,209.07392820878644,785.5008542073405,3,0.7782867453516986
780.8229585469943,93.65697980084909,454.3564508187744,3,0.9232885444231668
628.2733643952142,137.99927799102173,697.8996079274942,3,0.8572376377523212
669.1313874824091,583.4380942526479,836.2468268206845,3,0.3430141412638174
414.0042425464959,99.00712820771396,438.12212862945756,3,0.7012853245416784
258.7508435785505,562.666373376546,375.43439585482054,2,-0.9361660667361572
250.18333087364564,416.06060419297717,318.1612085849221,3,-0.5684314613084296
88.37812233404296,321.49143810118187,582.2413990064957,3,0.9822166532431702
604.4866336429558,962.858728608669,642.4036235472387,3,0.9267877906085344
486.4894859279871,940.6963967040704,346.36861595411295,3,0.9995018064187773
750.9612885588219,267.4610868025583,620.1749700178165,3,0.015533010585986457
189.7196094982767,862.9552226128516,527.8390275878008,3,0.9908759909420425
756.2602864233749,300.9629242239913,701.3109234772671,3,0.29213933020792754
392.52727016245336,781.2450147501102,276.10705224308794,3,0.19798440857908867
763.9134569830449,302.3134985153666,156.14669463063458,3,0.9942454438219883
